ply
format ascii 1.0
element vertex 1273
property float x
property float y
property float z
property uchar red
property uchar green
property uchar blue
end_header
18.7893 1.32596 1.95908  255 255 255
18.4218 1.344 2.32023  255 255 255
22.743 0.0775993 -0.925648  255 255 255
22.2034 1.65122 4.38597  255 255 255
35.3984 1.27463 4.00859  255 255 255
22.1304 1.39192 4.83669  255 255 255
17.4971 -5.36494 -6.02212  255 255 255
15.9684 27.5563 -3.99196  255 255 255
14.6294 25.924 -3.59697  255 255 255
15.0661 25.6636 -3.7353  255 255 255
19.1012 25.8144 -4.10991  255 255 255
18.009 25.2675 -7.41954  255 255 255
15.1835 22.6149 -5.14978  255 255 255
18.1245 21.9629 -6.20268  255 255 255
19.2766 23.9432 -24.2286  255 255 255
12.0498 11.1756 -8.46102  255 255 255
10.9868 11.0306 -8.57625  255 255 255
48.7862 7.28701 -11.9576  255 255 255
48.5127 7.23237 -12.1415  255 255 255
12.0703 6.08395 -4.37878  255 255 255
12.262 6.00997 -6.39391  255 255 255
13.3403 5.27471 -21.002  255 255 255
13.1159 4.04909 -18.115  255 255 255
50.0077 0.894918 -21.7041  255 255 255
50.1608 1.23684 -13.0745  255 255 255
36.7019 1.01342 -8.69596  255 255 255
36.4818 0.880148 -5.34947  255 255 255
22.9193 1.47276 -1.50119  255 255 255
12.816 -0.121542 -6.11472  255 255 255
21.0884 1.5277 0.943018  255 255 255
37.5753 -0.672171 -7.8873  255 255 255
24.0644 0.713115 -2.1915  255 255 255
24.0868 0.474908 -2.31813  255 255 255
29.2419 -0.0215425 -1.41782  255 255 255
35.4013 1.44789 3.96242  255 255 255
22.2124 1.51983 4.86628  255 255 255
16.0543 24.1134 -24.1373  255 255 255
11.2129 9.27892 -8.82594  255 255 255
12.1225 5.75686 -5.03554  255 255 255
10.6509 2.52482 -5.57083  255 255 255
37.3403 0.0248241 -1.99291  255 255 255
35.9992 -0.0570426 3.09689  255 255 255
15.9523 26.354 -3.47746  255 255 255
15.7619 23.9464 -4.20173  255 255 255
12.0547 6.46565 -3.51762  255 255 255
49.6459 4.97997 -22.6528  255 255 255
10.661 2.06767 -6.07871  255 255 255
11.5029 0.639547 -7.43477  255 255 255
20.9482 0.552934 5.85955  255 255 255
16.2572 26.2011 -3.50041  255 255 255
46.6573 22.8168 -25.8969  255 255 255
18.6548 21.4733 -24.9568  255 255 255
47.9166 8.87387 -11.4922  255 255 255
48.3748 6.86335 -11.1357  255 255 255
48.3748 6.86335 -11.1357  255 255 255
10.9058 1.45298 -5.66939  255 255 255
22.3367 2.02354 -1.19224  255 255 255
35.8653 0.29663 -1.81975  255 255 255
16.1266 26.9265 -3.01121  255 255 255
19.3831 25.8658 -4.5038  255 255 255
17.8183 22.7619 -6.52344  255 255 255
13.3595 9.72588 -9.09184  255 255 255
48.9169 7.51139 -13.2  255 255 255
39.6807 0.620045 -4.50689  255 255 255
21.9559 1.35168 -0.123902  255 255 255
17.0711 26.1441 -2.82902  255 255 255
15.5926 26.2572 -3.13368  255 255 255
12.5586 8.57393 -9.04037  255 255 255
48.9259 5.67628 -12.0192  255 255 255
17.9301 2.55362 -26.0433  255 255 255
37.8049 1.47808 -5.53836  255 255 255
37.6919 1.04033 -4.87288  255 255 255
19.6127 25.6288 -5.4341  255 255 255
25.1321 0.566851 -9.40534  255 255 255
10.9341 0.842498 -6.23365  255 255 255
13.5212 3.9541 -14.3014  255 255 255
35.5329 0.425511 -12.909  255 255 255
35.5329 0.425514 -12.909  255 255 255
39.1617 29.5195 25.7477  255 255 255
40.7912 26.6731 2.58412  255 255 255
40.7912 26.673 2.58427  255 255 255
19.3178 25.5534 -5.80751  255 255 255
9.79688 10.6742 22.656  255 255 255
9.64089 5.8579 25.9101  255 255 255
40.6223 5.34296 24.8548  255 255 255
40.6535 5.33471 25.061  255 255 255
40.6535 5.33471 25.061  255 255 255
40.5713 4.96931 25.0674  255 255 255
18.5471 1.36553 6.10687  255 255 255
37.6948 0.608347 10.9568  255 255 255
36.8748 3.31864 27.0848  255 255 255
46.1881 1.0777 16.9862  255 255 255
15.9242 31.2807 12.8032  255 255 255
15.9242 31.2807 12.8032  255 255 255
12.502 30.9218 12.8384  255 255 255
12.561 30.7762 13.0411  255 255 255
17.4287 29.4922 9.89025  255 255 255
13.6731 26.9174 10.2533  255 255 255
15.5334 26.1858 10.7228  255 255 255
38.8718 25.5334 2.8716  255 255 255
38.9545 25.6258 2.65806  255 255 255
14.8688 25.3069 -4.93321  255 255 255
8.31481 29.7624 -64.7636  255 255 255
42.1447 9.67188 18.9542  255 255 255
41.0711 8.94196 18.8391  255 255 255
42.2542 7.9843 19.0051  255 255 255
47.7845 7.47686 -6.17075  255 255 255
47.7845 7.47686 -6.17074  255 255 255
48.519 6.46004 -9.89339  255 255 255
40.9 5.92115 24.6534  255 255 255
14.0435 5.15374 23.767  255 255 255
41.2414 1.35905 14.977  255 255 255
8.72659 1.99411 22.8771  255 255 255
-12.4622 -27.6691 5.53018  255 255 255
12.5646 31.4349 12.6784  255 255 255
12.2594 30.4521 13.1041  255 255 255
12.2594 30.4521 13.1041  255 255 255
17.6949 30.6314 12.0423  255 255 255
40.5276 9.75164 18.9497  255 255 255
10.5751 10.1284 13.6133  255 255 255
42.0324 8.99571 19.2581  255 255 255
47.4561 8.05089 -1.24427  255 255 255
47.4405 8.04077 -1.21028  255 255 255
47.0516 7.76248 1.22297  255 255 255
47.0516 7.76248 1.223  255 255 255
47.4932 6.68112 -0.0264854  255 255 255
40.6249 6.32945 24.6684  255 255 255
8.92658 4.72834 15.9715  255 255 255
8.95183 2.16411 18.3316  255 255 255
40.6369 1.69696 24.8563  255 255 255
19.6246 3.19696 37.4386  255 255 255
37.5202 28.8327 27.8617  255 255 255
37.807 27.5962 27.3265  255 255 255
40.9837 10.6502 18.8587  255 255 255
39.7522 9.25241 18.3322  255 255 255
35.2245 1.30143 8.95851  255 255 255
13.3508 29.5591 10.0513  255 255 255
16.4901 29.0027 9.19516  255 255 255
39.3209 23.52 1.68148  255 255 255
13.4354 8.74769 31.7848  255 255 255
10.4303 8.30208 11.7383  255 255 255
10.5487 5.95542 8.09221  255 255 255
43.7276 4.59198 -2.82026  255 255 255
40.6707 5.6386 24.8772  255 255 255
40.6707 5.6386 24.8772  255 255 255
45.3415 1.14804 18.2883  255 255 255
13.3302 23.2877 32.1572  255 255 255
37.9708 27.464 27.5122  255 255 255
14.2756 31.4749 13.3002  255 255 255
13.0865 29.4917 11.8981  255 255 255
12.4973 29.4632 10.7813  255 255 255
40.0955 0.918958 24.7914  255 255 255
40.0588 0.919484 25.3884  255 255 255
46.3203 -1.78563 17.4298  255 255 255
37.3681 27.7431 28.1153  255 255 255
14.4403 29.6876 9.90478  255 255 255
12.803 27.9249 11.5595  255 255 255
13.856 8.33683 31.3564  255 255 255
11.1236 6.76383 8.7953  255 255 255
38.9158 9.47931 19.1693  255 255 255
9.30864 4.65594 22.7949  255 255 255
9.14301 1.7696 15.3091  255 255 255
43.9691 7.98431 18.1156  255 255 255
18.6404 16.1201 -21.2043  255 255 255
40.6009 9.57853 18.9407  255 255 255
39.8601 25.9183 2.22695  255 255 255
39.9743 26.0621 1.92251  255 255 255
42.1279 24.6701 3.41994  255 255 255
17.0325 0.442329 15.3577  255 255 255
47.5666 5.92218 -2.20601  255 255 255
15.5249 27.9473 9.5153  255 255 255
11.009 9.61101 13.6626  255 255 255
47.4757 6.10835 -1.02688  255 255 255
42.0607 9.55708 18.8959  255 255 255
39.053 0.756407 23.4562  255 255 255
40.9406 1.32532 17.4783  255 255 255
48.8677 22.3625 -26.8962  255 255 255
14.1596 24.2116 -5.63159  255 255 255
15.3536 21.6504 -4.547  255 255 255
13.188 11.0304 -8.43434  255 255 255
12.641 10.7437 -8.31285  255 255 255
12.827 10.6832 -8.57581  255 255 255
12.9002 10.6497 -8.4607  255 255 255
12.0856 10.1774 -8.59182  255 255 255
12.659 9.80139 -8.60736  255 255 255
11.5091 9.76637 -8.52181  255 255 255
12.1327 6.24283 -5.00789  255 255 255
12.1679 5.92676 -5.65057  255 255 255
11.9298 5.81584 -5.38592  255 255 255
12.2221 5.81017 -6.73421  255 255 255
12.8388 5.8191 -10.8894  255 255 255
12.4824 5.37928 -8.69849  255 255 255
46.0755 3.97747 -10.5219  255 255 255
13.1679 3.27016 -13.9191  255 255 255
39.091 1.72424 -6.05074  255 255 255
22.5398 2.20182 -1.28067  255 255 255
39.7016 0.744351 -6.07461  255 255 255
35.7488 0.593558 -6.48376  255 255 255
24.7958 0.763078 -3.14191  255 255 255
22.8659 0.642038 -0.882158  255 255 255
16.25 26.1496 -3.93339  255 255 255
19.2852 25.4632 -5.66588  255 255 255
15.3041 22.1899 -4.64334  255 255 255
13.3342 11.2515 -8.61459  255 255 255
11.8101 11.1282 -8.47551  255 255 255
12.9159 11.0613 -8.39273  255 255 255
11.1875 9.01104 -9.20454  255 255 255
12.3654 6.91666 -9.49651  255 255 255
12.164 6.27791 -5.12823  255 255 255
12.1634 6.27858 -5.12995  255 255 255
12.2904 6.26015 -7.40241  255 255 255
12.3354 6.14756 -7.52183  255 255 255
12.1984 5.84861 -5.79257  255 255 255
12.2184 5.78053 -6.29351  255 255 255
12.2495 5.79788 -6.26631  255 255 255
12.2363 5.70055 -6.83466  255 255 255
50.5282 5.53205 -15.3452  255 255 255
13.2776 3.28495 -14.3288  255 255 255
22.2753 1.83259 -6.96353  255 255 255
16.7352 1.52872 -2.79336  255 255 255
36.3472 -0.562943 -7.1649  255 255 255
36.1974 0.929293 -0.473732  255 255 255
36.3483 0.873749 -0.659818  255 255 255
22.8972 0.708611 -0.95248  255 255 255
14.1394 24.0845 -4.19118  255 255 255
19.4496 25.4311 -5.83784  255 255 255
12.2808 5.94346 -6.92113  255 255 255
48.365 6.20653 -11.2933  255 255 255
13.4494 3.56281 -13.3872  255 255 255
22.7083 2.30067 -1.77033  255 255 255
12.2664 0.931656 -6.70527  255 255 255
35.8025 1.10456 -6.63236  255 255 255
12.3553 0.688739 -6.49298  255 255 255
36.1205 0.869222 -5.89661  255 255 255
35.6743 0.468649 -6.6189  255 255 255
35.6521 0.478562 -6.57676  255 255 255
22.0493 1.38268 5.09637  255 255 255
21.9972 1.38229 5.13783  255 255 255
18.6313 23.3698 -6.61447  255 255 255
11.5911 1.15296 -7.04535  255 255 255
21.6643 1.12073 -0.11011  255 255 255
20.6299 1.29899 0.871404  255 255 255
14.0952 23.9291 -4.42241  255 255 255
24.4959 1.26102 -2.99685  255 255 255
18.1796 23.1521 -6.51219  255 255 255
17.0451 21.2538 -5.5586  255 255 255
22.7201 2.20119 -1.7167  255 255 255
13.2747 9.75726 -9.2171  255 255 255
48.4744 7.42977 -11.2252  255 255 255
20.6187 1.51872 0.792024  255 255 255
12.3905 6.06718 -9.31734  255 255 255
22.7815 1.82652 -1.25456  255 255 255
14.3307 24.5967 -5.85573  255 255 255
12.4279 4.62992 -9.11232  255 255 255
13.3935 3.93774 -14.4871  255 255 255
35.615 0.24535 -0.669576  255 255 255
46.9864 22.4943 -83.2752  255 255 255
36.9345 1.19433 -4.96009  255 255 255
49.619 1.70942 -60.9116  255 255 255
81.0727 -9.4906 -79.5115  255 255 255
261.336 51.7943 -210.457  255 255 255
45.7735 3.91186 -27.4096  255 255 255
49.6308 7.03162 -32.7185  255 255 255
36.7156 0.0492416 9.30928  255 255 255
46.5907 23.0036 -52.874  255 255 255
46.8609 19.7723 -69.4229  255 255 255
13.1796 0.384105 -20.5475  255 255 255
46.9314 19.8047 -51.3974  255 255 255
52.4731 1.24846 -57.1663  255 255 255
37.4197 -0.896212 -28.5326  255 255 255
3.40505 -12.7725 14.713  255 255 255
-9.41149 -27.0794 4.57214  255 255 255
-53.057 -73.0186 -61.1036  255 255 255
44.7819 21.8231 -55.5037  255 255 255
44.8144 18.6397 -51.5895  255 255 255
47.1386 17.3769 -52.3057  255 255 255
44.9048 3.36207 -27.1523  255 255 255
36.4459 1.09269 -11.9772  255 255 255
39.7376 1.61424 -6.56225  255 255 255
20.8492 2.33047 -7.23887  255 255 255
37.0577 0.417825 -16.4053  255 255 255
50.0107 8.6666 -24.7913  255 255 255
26.3615 -0.105894 -25.3493  255 255 255
18.2142 26.1888 -22.5468  255 255 255
18.2766 25.9899 -22.2672  255 255 255
20.6596 24.9539 -24.9238  255 255 255
18.7635 22.3509 -50.9722  255 255 255
87.5628 18.5644 -59.378  255 255 255
12.3222 5.95076 -7.5342  255 255 255
12.316 5.64463 -7.89821  255 255 255
45.8973 2.92079 -33.9446  255 255 255
36.5664 1.299 -5.23473  255 255 255
-9.87738 -28.012 -45.5431  255 255 255
-9.43931 -27.017 -43.2381  255 255 255
49.2011 6.13436 -17.902  255 255 255
16.2537 3.37801 -43.2132  255 255 255
37.2186 -1.24737 -22.7578  255 255 255
16.0349 0.389372 -46.6471  255 255 255
36.6883 -0.513333 -20.2135  255 255 255
18.3373 21.3836 -51.2401  255 255 255
24.7911 -0.0769676 -23.903  255 255 255
35.7566 0.0950124 -7.22869  255 255 255
13.6159 3.27448 -20.7059  255 255 255
40.7234 5.33179 24.7268  255 255 255
41.1234 0.546844 13.7419  255 255 255
37.93 30.4709 27.5749  255 255 255
14.0085 31.0885 13.7856  255 255 255
42.6727 7.19957 24.055  255 255 255
40.6626 5.57108 24.888  255 255 255
16.0896 32.1072 11.9263  255 255 255
9.41317 10.0447 28.3061  255 255 255
9.54778 7.17276 29.5082  255 255 255
40.9363 5.13249 24.8038  255 255 255
13.3097 19.3249 32.4089  255 255 255
9.7976 6.97684 29.5666  255 255 255
13.159 19.0965 32.2472  255 255 255
40.9588 2.20386 24.2516  255 255 255
39.4344 1.21097 27.28  255 255 255
40.7012 4.7024 24.894  255 255 255
12.8211 7.23274 31.5822  255 255 255
40.3986 6.45543 24.8234  255 255 255
40.5586 5.48266 24.8313  255 255 255
12.1509 30.0527 11.4761  255 255 255
40.9224 5.51623 24.8872  255 255 255
14.842 29.947 11.5421  255 255 255
42.645 24.2992 -27.5594  255 255 255
12.7862 11.0571 -8.25468  255 255 255
12.2027 11.1479 -8.58952  255 255 255
13.0528 11.0993 -8.62231  255 255 255
12.2453 10.836 -8.41405  255 255 255
12.8396 10.6911 -8.34642  255 255 255
12.4303 10.6784 -8.5604  255 255 255
12.4303 10.6784 -8.5604  255 255 255
12.2563 10.5251 -8.39132  255 255 255
12.5809 10.5433 -8.48004  255 255 255
12.4091 10.4074 -8.76479  255 255 255
12.1394 10.5299 -9.10731  255 255 255
11.8982 10.2054 -8.36473  255 255 255
13.3759 9.84999 -8.29026  255 255 255
10.7093 9.73893 -8.40583  255 255 255
12.4418 8.92384 -8.74309  255 255 255
12.4476 8.9173 -8.72114  255 255 255
12.3075 6.39495 -6.86154  255 255 255
12.3218 6.27513 -6.66893  255 255 255
12.172 6.22403 -6.95687  255 255 255
12.172 6.22403 -6.95687  255 255 255
49.4309 7.97269 -23.4099  255 255 255
12.8572 6.56163 -13.4681  255 255 255
49.4001 7.55191 -22.7384  255 255 255
12.3252 5.95643 -7.53379  255 255 255
12.4445 5.71758 -7.58897  255 255 255
12.3819 5.65047 -8.57445  255 255 255
49.2057 6.44516 -20.7329  255 255 255
49.4464 6.54851 -23.0333  255 255 255
49.5077 6.5461 -23.1026  255 255 255
12.4048 5.46081 -8.50118  255 255 255
49.2921 5.58911 -20.7937  255 255 255
49.515 5.10747 -23.1088  255 255 255
14.5897 3.85015 -31.6702  255 255 255
13.2288 3.42078 -12.5742  255 255 255
50.848 0.843894 -13.7558  255 255 255
36.5696 0.961895 -11.3323  255 255 255
36.5696 0.961895 -11.3323  255 255 255
14.4605 0.568095 -12.6811  255 255 255
36.5241 0.792112 -11.5987  255 255 255
16.8083 2.04259 -2.59266  255 255 255
21.7297 2.37479 -0.593858  255 255 255
39.3936 1.12268 -6.03631  255 255 255
39.3936 1.12269 -6.0363  255 255 255
21.4866 2.15364 -0.48628  255 255 255
37.6838 1.56171 -1.69509  255 255 255
36.8945 0.765642 -4.72973  255 255 255
22.9237 1.48045 -1.18399  255 255 255
21.8616 0.575348 -0.112888  255 255 255
21.7197 0.156694 -0.142321  255 255 255
17.3462 26.1717 -21.8113  255 255 255
17.6555 26.496 -22.9965  255 255 255
15.518 23.5475 -21.7259  255 255 255
16.2358 24.4417 -23.8767  255 255 255
16.1972 24.5636 -24.0672  255 255 255
18.3257 24.5904 -24.2087  255 255 255
45.6252 25.8667 -25.8595  255 255 255
42.6295 22.1097 -28.1228  255 255 255
11.3547 9.98256 -8.35956  255 255 255
12.171 6.44702 -6.84228  255 255 255
12.3056 6.26458 -7.39909  255 255 255
49.1932 7.64557 -19.1207  255 255 255
49.1933 7.64557 -19.1207  255 255 255
49.3114 6.83373 -22.5935  255 255 255
12.3849 5.55966 -8.3265  255 255 255
49.3786 6.26171 -19.3645  255 255 255
10.9596 1.92618 -11.4072  255 255 255
11.2315 1.97018 -11.1674  255 255 255
49.2 1.41553 -16.3026  255 255 255
37.3448 0.814143 -10.228  255 255 255
16.5275 1.65554 -2.83742  255 255 255
37.1865 1.12441 -4.78833  255 255 255
16.7289 1.10111 -2.6955  255 255 255
20.9507 1.53804 0.960002  255 255 255
21.8881 0.268487 -0.26054  255 255 255
19.164 24.1877 -24.6658  255 255 255
13.3507 11.1654 -8.56921  255 255 255
12.4475 6.71797 -9.59204  255 255 255
13.1095 6.26971 -14.1756  255 255 255
50.3779 0.84743 -22.2056  255 255 255
16.743 0.916645 -2.70325  255 255 255
17.0692 20.64 -5.21886  255 255 255
11.4931 11.094 -8.89628  255 255 255
12.7694 8.64499 -9.32097  255 255 255
13.244 3.15422 -12.5403  255 255 255
13.2229 1.82522 -20.5268  255 255 255
12.8423 0.381725 -20.4925  255 255 255
37.6209 1.62556 -10.7033  255 255 255
37.9785 1.42831 -10.8101  255 255 255
12.8181 0.685345 -13.8903  255 255 255
12.8391 0.695015 -13.864  255 255 255
21.6925 1.10217 -0.276349  255 255 255
35.7085 0.609217 -1.76585  255 255 255
16.9538 18.7776 -5.46823  255 255 255
14.2158 3.98811 -29.7006  255 255 255
12.2919 2.67723 -20.1554  255 255 255
12.1946 1.85786 -19.6831  255 255 255
23.5416 1.58638 -7.26932  255 255 255
23.3811 1.4533 -8.08091  255 255 255
21.5838 1.38901 -0.276487  255 255 255
20.0564 1.33552 0.906955  255 255 255
18.3974 24.5713 -7.29104  255 255 255
13.6767 0.383271 -13.238  255 255 255
22.4323 2.09193 -1.05969  255 255 255
25.0909 -0.181822 -9.19471  255 255 255
22.6177 1.67312 -7.50101  255 255 255
14.9039 23.3923 -23.159  255 255 255
16.305 6.59115 -5.53066  255 255 255
20.6348 2.1796 -0.0463134  255 255 255
18.1675 20.6167 -24.4555  255 255 255
11.2715 10.9829 -8.48521  255 255 255
11.4461 10.9117 -8.30006  255 255 255
11.8779 10.5548 -8.54126  255 255 255
12.461 6.40628 -6.88553  255 255 255
48.5842 7.04242 -12.4616  255 255 255
21.6587 2.00528 -0.475649  255 255 255
21.535 1.99902 -0.375308  255 255 255
25.5142 -0.0223585 -9.91011  255 255 255
37.9887 0.958146 -5.11439  255 255 255
37.3411 0.846803 -4.72855  255 255 255
20.2963 1.45721 1.01058  255 255 255
21.9454 0.718095 0.00755237  255 255 255
46.5788 23.0196 -26.6854  255 255 255
37.1252 0.661415 -10.5389  255 255 255
16.503 20.0743 -5.24845  255 255 255
16.4536 19.7024 -5.30621  255 255 255
16.9175 17.506 -5.55236  255 255 255
22.587 1.31763 -0.83625  255 255 255
13.5493 3.36083 -12.6695  255 255 255
17.937 23.7173 -7.08523  255 255 255
35.9992 1.11466 -6.44078  255 255 255
10.7936 9.15621 10.4931  255 255 255
10.7496 9.10945 10.6233  255 255 255
10.7359 8.6842 11.2116  255 255 255
10.8181 8.31888 10.2847  255 255 255
10.6916 7.71322 11.5167  255 255 255
10.6916 7.71322 11.5167  255 255 255
-33.2475 33.9338 -188.767  255 255 255
10.9503 7.52329 8.78905  255 255 255
47.4253 18.1801 -86.1526  255 255 255
11.1062 6.16536 7.66794  255 255 255
11.3787 5.45121 5.19907  255 255 255
9.94491 3.64345 3.32919  255 255 255
10.8665 1.81428 9.54939  255 255 255
10.4936 1.7881 12.0679  255 255 255
10.8749 9.02112 10.3362  255 255 255
10.7919 8.50901 10.6927  255 255 255
10.8404 8.51858 10.0394  255 255 255
10.7322 7.83993 11.4643  255 255 255
10.629 7.59727 12.4777  255 255 255
10.8245 7.84952 10.4307  255 255 255
10.727 7.67877 11.3912  255 255 255
10.8267 7.77349 10.2655  255 255 255
10.7768 7.67526 11.0392  255 255 255
10.7731 7.67491 11.0353  255 255 255
10.7784 7.60993 10.8738  255 255 255
11.0276 7.88672 8.41393  255 255 255
10.9617 7.8843 7.94549  255 255 255
10.9479 7.6798 8.82685  255 255 255
70.4846 12.262 -67.0114  255 255 255
19.1101 -0.000315777 6.80729  255 255 255
10.7651 8.62546 10.8464  255 255 255
10.7388 8.61248 10.8317  255 255 255
10.897 8.37307 9.91409  255 255 255
10.7796 8.27859 10.4457  255 255 255
10.7644 7.20025 11.2395  255 255 255
10.8027 7.16195 10.627  255 255 255
10.6542 3.8141 10.4054  255 255 255
10.0389 2.02891 3.26875  255 255 255
10.7301 3.61003 10.6577  255 255 255
10.7245 2.28836 11.1037  255 255 255
10.8203 8.51084 10.3852  255 255 255
10.8549 8.28107 10.1109  255 255 255
10.7012 1.96323 10.7572  255 255 255
10.7498 9.10351 9.72667  255 255 255
53.8672 13.487 -149.259  255 255 255
10.6349 4.06585 10.5869  255 255 255
10.7097 3.30043 10.3077  255 255 255
10.5182 2.39407 10.6303  255 255 255
10.0716 8.20275 18.435  255 255 255
10.1094 7.95827 18.3118  255 255 255
10.1082 7.95942 18.3122  255 255 255
10.1139 7.90533 18.2212  255 255 255
10.1133 7.79562 18.1681  255 255 255
10.0608 9.22819 18.5632  255 255 255
10.0491 8.05398 18.7323  255 255 255
10.0819 7.95177 18.4462  255 255 255
51.3188 4.44211 -26.4713  255 255 255
45.6673 -0.0192194 -51.2085  255 255 255
9.0008 3.92406 15.8516  255 255 255
9.06207 4.38282 15.8948  255 255 255
37.2849 0.424706 -23.7617  255 255 255
10.9196 7.81666 9.27834  255 255 255
11.0122 7.87793 7.9909  255 255 255
10.9267 7.47237 9.29229  255 255 255
10.9038 7.47754 9.27111  255 255 255
23.4288 6.42721 -94.9817  255 255 255
15.7454 4.717 10.1521  255 255 255
11.4456 2.54447 8.1153  255 255 255
163.761 -191.505 -242.528  255 255 255
15.373 8.17581 13.2894  255 255 255
10.9725 7.5528 8.50252  255 255 255
22.2218 19.7239 -80.1741  255 255 255
11.0511 7.53501 7.96075  255 255 255
15.7192 5.32127 10.1005  255 255 255
50.5885 3.28621 -31.9336  255 255 255
11.7375 1.45243 -1.76559  255 255 255
10.8238 8.39736 9.94689  255 255 255
10.9339 7.16872 9.23681  255 255 255
11.0399 1.89176 10.0933  255 255 255
10.72 3.42248 9.86346  255 255 255
10.716 2.85592 9.90105  255 255 255
15.7659 4.96676 10.1085  255 255 255
11.4014 5.65081 6.85841  255 255 255
65.8629 -6.51601 -61.3589  255 255 255
10.9293 1.87201 10.3129  255 255 255
9.1571 1.85908 11.6449  255 255 255
10.9288 7.04943 9.63531  255 255 255
12.9596 4.46815 -2.8953  255 255 255
9.10044 3.09492 14.3764  255 255 255
-22.8857 -44.4336 -55.3243  255 255 255
9.93903 2.73559 3.14961  255 255 255
9.13585 2.91448 14.2439  255 255 255
9.10983 2.89989 14.2497  255 255 255
10.9709 8.00337 8.85093  255 255 255
9.15653 3.31813 14.2195  255 255 255
12.5788 9.73465 16.9293  255 255 255
10.7899 5.68266 9.2187  255 255 255
46.6117 21.454 -26.4255  255 255 255
12.1416 7.21179 -3.44651  255 255 255
11.3234 5.66615 7.06962  255 255 255
53.5915 8.24049 -53.5514  255 255 255
13.8867 3.95504 -20.4488  255 255 255
20.7279 1.38431 -90.8005  255 255 255
18.129 1.25228 5.65083  255 255 255
16.8248 0.024386 6.61573  255 255 255
17.2477 0.156393 8.69033  255 255 255
168.185 -176.269 -276.281  255 255 255
17.2982 0.146917 8.22127  255 255 255
39.6582 -1.16975 -45.9709  255 255 255
9.96288 2.37912 2.4827  255 255 255
48.9547 0.169983 -68.4458  255 255 255
9.99406 3.05974 1.53823  255 255 255
10.0797 0.384832 2.00781  255 255 255
10.4157 1.73349 -0.500501  255 255 255
9.93745 9.31237 19.7352  255 255 255
10.0538 9.25064 18.9025  255 255 255
10.0449 8.96464 18.8305  255 255 255
9.97618 8.54124 19.6633  255 255 255
10.0022 8.52381 19.3533  255 255 255
9.91306 8.22079 20.2866  255 255 255
9.91402 8.22043 20.2861  255 255 255
9.91708 8.10765 20.3618  255 255 255
9.95794 7.96569 19.8684  255 255 255
10.048 7.92113 19.0733  255 255 255
10.048 7.92113 19.0733  255 255 255
10.1252 7.57237 18.3757  255 255 255
9.89466 10.6294 17.9714  255 255 255
9.89756 8.59561 20.4588  255 255 255
9.89755 8.59561 20.4588  255 255 255
9.94409 8.28193 20.0474  255 255 255
9.98546 7.75481 19.717  255 255 255
9.99136 7.74932 19.7188  255 255 255
10.7891 7.10199 13.0659  255 255 255
42.6071 24.9991 4.68314  255 255 255
9.93965 8.4385 19.9753  255 255 255
9.63585 10.517 18.3537  255 255 255
8.9859 4.11236 15.049  255 255 255
10.6774 10.5864 -8.85986  255 255 255
11.7524 9.2446 -9.56536  255 255 255
10.9259 9.13629 -9.37345  255 255 255
49.9428 14.4627 -70.131  255 255 255
11.6858 5.72064 0.456189  255 255 255
49.0181 5.97087 -17.9944  255 255 255
12.0334 3.84807 -3.34003  255 255 255
9.98626 1.7406 2.08224  255 255 255
18.5218 1.20956 6.41602  255 255 255
18.9553 0.527844 6.71755  255 255 255
17.2336 0.143 7.26279  255 255 255
17.2447 0.0403741 7.18443  255 255 255
17.1724 0.101949 7.47447  255 255 255
43.3 7.05906 -25.5646  255 255 255
11.8872 5.24033 -2.54063  255 255 255
10.0615 3.24578 1.86089  255 255 255
10.4825 1.44741 -0.727134  255 255 255
9.99605 1.43183 2.09496  255 255 255
20.8268 1.36534 5.56587  255 255 255
17.3332 0.0780954 8.37222  255 255 255
11.4373 5.39468 0.424377  255 255 255
10.0353 1.99077 1.86986  255 255 255
10.0293 0.97414 1.88375  255 255 255
10.0164 0.976441 1.87656  255 255 255
9.91559 0.971311 2.56018  255 255 255
10.1548 9.64512 -8.81947  255 255 255
10.0089 2.28468 1.53986  255 255 255
9.8989 2.32288 2.84233  255 255 255
9.92619 1.95809 2.56318  255 255 255
10.1825 2.05427 3.79065  255 255 255
9.91802 1.01196 3.21102  255 255 255
9.91913 1.01295 3.20891  255 255 255
9.95648 2.97662 2.17488  255 255 255
11.3459 2.20053 -1.88148  255 255 255
9.98773 0.784027 2.22891  255 255 255
10.03 1.39478 1.52875  255 255 255
12.1338 -0.569269 -2.40736  255 255 255
10.3253 1.95339 0.168326  255 255 255
38.698 23.9061 1.19671  255 255 255
9.89718 9.04424 20.2989  255 255 255
-1.61105 49.6095 -213.807  255 255 255
10.0267 9.24828 19.0777  255 255 255
8.68443 2.48485 19.5226  255 255 255
-595.293 -565.289 -637.056  255 255 255
10.1035 10.3717 17.6308  255 255 255
9.98388 8.83788 19.5051  255 255 255
9.9197 8.47071 20.3046  255 255 255
48.3669 18.3821 -48.2595  255 255 255
37.2958 1.67215 -3.92206  255 255 255
42.2289 9.05877 18.9294  255 255 255
45.0236 17.3606 -26.9236  255 255 255
11.653 6.33103 -0.265396  255 255 255
11.8781 6.35378 -0.683643  255 255 255
48.7412 3.72725 -16.6456  255 255 255
15.1613 0.892786 -11.918  255 255 255
25.7418 0.756083 -11.7409  255 255 255
16.9901 1.22669 -2.49364  255 255 255
18.1667 1.00683 6.89554  255 255 255
19.0799 0.154697 6.98103  255 255 255
12.556 10.0048 -8.71632  255 255 255
13.2418 4.99141 -19.6846  255 255 255
11.7544 4.24228 -0.813065  255 255 255
12.7097 0.206039 -1.68234  255 255 255
19.4885 1.31348 6.62145  255 255 255
17.0994 -0.0297434 7.11847  255 255 255
17.2205 0.182744 7.99012  255 255 255
49.6688 15.6651 -66.8545  255 255 255
11.7054 5.71644 0.478104  255 255 255
11.8896 0.702061 -1.12894  255 255 255
20.3252 1.53181 3.88034  255 255 255
12.1444 5.93976 -6.16959  255 255 255
10.8623 1.68323 -1.42661  255 255 255
11.226 1.70822 -0.208787  255 255 255
18.9136 19.1149 -49.5133  255 255 255
11.679 9.4367 -9.13342  255 255 255
18.8488 0.991394 4.29216  255 255 255
16.9189 4.65929 -62.4347  255 255 255
20.6115 1.62654 5.11668  255 255 255
44.6588 21.4385 -50.777  255 255 255
50.5817 8.77955 -34.1099  255 255 255
12.0093 5.92102 -3.59208  255 255 255
12.2441 5.8597 -6.4335  255 255 255
52.2025 7.97871 -55.1114  255 255 255
12.1234 5.27073 -2.49141  255 255 255
12.2256 4.8735 -2.46663  255 255 255
16.5056 4.42626 -54.7885  255 255 255
16.478 4.43782 -54.987  255 255 255
46.2471 2.73173 -34.0588  255 255 255
13.4564 3.51439 -10.0176  255 255 255
16.8945 1.49608 -1.8493  255 255 255
17.5866 21.2281 -52.9327  255 255 255
48.3134 18.5941 -60.5398  255 255 255
46.4781 19.4571 -67.8322  255 255 255
11.8627 6.90946 -1.56632  255 255 255
13.1508 4.04482 -18.0873  255 255 255
12.3489 3.23711 -2.97367  255 255 255
37.3369 -0.602251 -7.44595  255 255 255
49.7577 8.61651 -25.1209  255 255 255
24.9991 -0.508111 -9.098  255 255 255
12.0884 0.225601 -3.0533  255 255 255
20.8011 19.9241 -52.7673  255 255 255
43.1436 20.5054 -53.3202  255 255 255
11.8232 5.90502 -1.01325  255 255 255
49.1432 6.55332 -18.4971  255 255 255
43.6697 25.2602 -25.7115  255 255 255
11.8809 5.64211 -2.30812  255 255 255
16.5305 27.3816 -5.06169  255 255 255
6.98429 10.529 26.8971  255 255 255
14.7373 9.83002 17.3499  255 255 255
35.8596 -0.350946 -5.98538  255 255 255
14.1712 27.4184 -6.77832  255 255 255
16.2063 26.2867 -7.31036  255 255 255
18.8454 25.3347 -25.9995  255 255 255
18.3548 24.9005 -26.2279  255 255 255
46.519 9.32676 0.629863  255 255 255
41.6593 7.71134 18.6249  255 255 255
41.0532 7.47953 18.9069  255 255 255
42.4441 7.97899 1.27572  255 255 255
47.7905 7.73727 -7.12121  255 255 255
47.7905 7.73727 -7.12121  255 255 255
47.7159 7.56342 -4.03578  255 255 255
47.7988 6.14653 -7.16274  255 255 255
48.1254 5.80685 -8.89427  255 255 255
47.6121 5.55705 -6.79677  255 255 255
40.6 5.57665 24.9656  255 255 255
40.3777 0.899674 8.3368  255 255 255
43.4087 23.4261 2.35582  255 255 255
44.6027 22.8935 -26.7308  255 255 255
47.0644 9.35801 0.602673  255 255 255
47.4793 9.25332 -2.59968  255 255 255
42.9298 8.41205 1.98144  255 255 255
47.7552 7.83969 -5.11698  255 255 255
47.5308 5.33922 -2.09896  255 255 255
10.5783 2.11131 8.47986  255 255 255
10.5783 2.11131 8.47985  255 255 255
16.6736 0.741168 8.62208  255 255 255
38.9809 24.1652 1.14707  255 255 255
41.3539 20.3393 2.13127  255 255 255
20.6435 1.62208 5.4325  255 255 255
40.312 -0.0038678 8.76456  255 255 255
40.9182 -0.228837 8.88023  255 255 255
45.812 0.893671 14.9064  255 255 255
39.2008 22.7073 5.94729  255 255 255
39.1022 23.0425 -0.445385  255 255 255
14.216 6.53154 31.6353  255 255 255
15.1042 23.6239 -6.34429  255 255 255
13.8176 10.3047 17.2519  255 255 255
40.6538 6.82232 24.3948  255 255 255
35.1622 0.849367 7.27846  255 255 255
18.8556 0.272216 6.26397  255 255 255
37.8763 0.0935109 8.20414  255 255 255
12.1203 29.5492 10.8386  255 255 255
40.4378 5.22008 24.5173  255 255 255
41.0551 5.23217 25.1379  255 255 255
47.3642 3.31126 -0.501786  255 255 255
13.6011 24.4528 -3.1036  255 255 255
14.9819 11.747 13.7741  255 255 255
47.3306 2.03262 -19.0795  255 255 255
13.9375 25.9153 -1.67072  255 255 255
42.8247 24.091 -29.8369  255 255 255
12.8244 31.3821 13.2064  255 255 255
16.4565 31.7925 12.3529  255 255 255
10.3124 10.2266 12.9741  255 255 255
9.24913 5.83728 26.3727  255 255 255
48.3211 4.76606 -8.09885  255 255 255
15.113 25.817 10.7999  255 255 255
18.8118 23.317 -5.66056  255 255 255
41.1693 11.2617 18.9073  255 255 255
40.1234 1.32437 8.64406  255 255 255
8.8081 4.50866 18.5992  255 255 255
42.4368 3.91572 6.72842  255 255 255
14.3624 23.6169 -4.74745  255 255 255
16.3158 23.0228 -25.2089  255 255 255
15.805 22.2327 -25.5187  255 255 255
44.2558 23.078 -27.0655  255 255 255
45.281 19.1405 -26.5749  255 255 255
20.0071 25.4264 -52.1824  255 255 255
44.5572 18.9602 -52.1527  255 255 255
48.9678 7.86996 -18.8274  255 255 255
49.5456 7.78493 -24.4071  255 255 255
-24.821 10.428 -86.63  255 255 255
49.1474 6.65254 -20.8656  255 255 255
49.4818 6.54406 -23.0821  255 255 255
14.6578 4.89715 -25.0368  255 255 255
49.4893 5.14126 -22.5822  255 255 255
49.4322 5.13379 -22.5169  255 255 255
49.4803 5.00335 -23.7819  255 255 255
49.5036 5.00717 -23.806  255 255 255
15.4457 3.85779 -41.274  255 255 255
17.3901 3.12118 -38.7328  255 255 255
45.8934 2.91921 -33.9372  255 255 255
46.7713 2.89675 -34.2278  255 255 255
48.065 3.57321 -16.9901  255 255 255
13.1135 3.42619 -14.2631  255 255 255
14.0809 2.86162 -25.2552  255 255 255
13.2829 2.34206 -30.3753  255 255 255
13.2568 1.75541 -29.054  255 255 255
12.4881 2.52941 -19.18  255 255 255
12.247 2.48698 -19.6165  255 255 255
45.9981 1.74037 -34.2188  255 255 255
13.462 0.902859 -29.7913  255 255 255
24.857 1.12706 -16.2946  255 255 255
37.2474 0.903074 -16.2038  255 255 255
15.3611 0.858842 -11.4984  255 255 255
37.8646 -1.22742 -22.6805  255 255 255
37.8646 -1.22744 -22.6805  255 255 255
35.7471 0.728727 -6.5434  255 255 255
16.4599 1.49063 -2.52727  255 255 255
36.9922 0.802309 -4.69598  255 255 255
30.1803 -0.626293 -8.26264  255 255 255
21.4752 2.21517 4.02758  255 255 255
19.4279 24.0655 -5.84155  255 255 255
44.9956 24.0419 -24.93  255 255 255
12.7826 5.83579 -10.6449  255 255 255
49.4908 6.28452 -22.7958  255 255 255
51.3781 4.66539 -43.804  255 255 255
8.6632 4.11425 -8.83035  255 255 255
13.4129 1.73931 -20.9873  255 255 255
13.1073 0.491375 -23.7847  255 255 255
25.523 -0.0741778 -23.4799  255 255 255
25.5477 1.29612 -8.66463  255 255 255
35.7917 0.337277 -5.9466  255 255 255
29.637 -0.311658 -3.91191  255 255 255
17.7898 23.7236 -4.80583  255 255 255
17.7898 23.7236 -4.80583  255 255 255
14.2039 24.1439 -5.11058  255 255 255
19.2463 25.1838 -6.00272  255 255 255
17.1482 26.6495 -22.0085  255 255 255
43.9141 23.9291 -27.7923  255 255 255
45.7382 19.0337 -27.3728  255 255 255
48.2868 18.584 -60.4744  255 255 255
12.084 6.28039 -4.86281  255 255 255
12.1757 5.98556 -5.06524  255 255 255
12.1636 5.98548 -5.07784  255 255 255
-23.2193 10.0079 -95.2128  255 255 255
13.554 4.30301 -19.6341  255 255 255
13.4016 4.34271 -19.9877  255 255 255
15.4177 3.74059 -44.5101  255 255 255
25.3033 0.114549 -18.779  255 255 255
37.0612 0.399121 -16.3982  255 255 255
36.6563 -0.197888 -17.7708  255 255 255
25.5307 -0.0565763 -9.9627  255 255 255
31.8378 -2.56684 -14.1634  255 255 255
17.1327 26.8795 -22.2396  255 255 255
12.1595 6.20634 -6.07645  255 255 255
47.6261 3.60426 -38.589  255 255 255
37.5418 1.60459 -10.6024  255 255 255
38.4685 1.25917 -5.39182  255 255 255
16.3255 24.0318 -25.2437  255 255 255
16.4734 21.8734 -24.5964  255 255 255
36.6897 0.509454 -16.738  255 255 255
16.6061 1.70185 -2.9984  255 255 255
46.3435 6.42093 -29.1877  255 255 255
49.9776 4.50015 -25.0769  255 255 255
12.4083 2.43526 -22.3365  255 255 255
-329.057 -131.618 -549.447  255 255 255
18.6807 24.3884 -6.20386  255 255 255
49.33 7.21492 -33.1694  255 255 255
48.2329 4.02452 -31.124  255 255 255
17.0529 3.30636 -26.2411  255 255 255
13.3597 3.30304 -23.1033  255 255 255
49.598 7.59534 -16.9684  255 255 255
20.5563 5.51698 -20.6043  255 255 255
18.1465 2.13529 -41.1141  255 255 255
11.9639 31.9944 11.927  255 255 255
17.3366 30.206 9.79464  255 255 255
19.0369 25.5443 -7.18737  255 255 255
16.5589 17.9906 -6.32102  255 255 255
-3.12855 12.9471 7.99482  255 255 255
8.29277 8.59749 31.8093  255 255 255
42.0934 9.64643 19.0952  255 255 255
41.8699 3.75444 6.01731  255 255 255
40.8272 4.95689 25.051  255 255 255
9.35272 2.33405 14.8323  255 255 255
13.2426 31.1425 10.191  255 255 255
41.0211 23.9441 4.26394  255 255 255
15.2991 25.6547 -7.90027  255 255 255
9.00896 9.04554 31.2499  255 255 255
9.06365 9.04284 30.6758  255 255 255
9.08784 9.04428 30.3416  255 255 255
11.1503 9.11861 12.0346  255 255 255
10.458 7.81659 12.3044  255 255 255
91.6313 9.93009 -30.194  255 255 255
15.491 1.05669 14.9353  255 255 255
9.6081 2.1815 28.5434  255 255 255
18.6473 3.26806 38.6674  255 255 255
16.5148 31.0112 12.4451  255 255 255
16.5148 31.0111 12.4451  255 255 255
38.7184 26.1861 1.94815  255 255 255
16.087 25.8307 -7.53061  255 255 255
9.04674 9.06222 30.9408  255 255 255
9.239 8.62403 29.5569  255 255 255
46.993 9.35391 0.75888  255 255 255
9.21275 7.19102 29.3608  255 255 255
40.186 7.42992 29.5039  255 255 255
46.2756 0.699408 12.4504  255 255 255
34.0458 0.987008 23.1909  255 255 255
38.436 1.12725 31.3456  255 255 255
18.874 3.2295 38.373  255 255 255
15.6387 31.9597 12.0432  255 255 255
15.8159 10.6379 17.2397  255 255 255
15.9493 10.5589 17.7885  255 255 255
47.8533 7.41082 -2.06126  255 255 255
18.2973 3.47112 41.5336  255 255 255
8.9971 9.30195 31.3621  255 255 255
8.99539 9.3118 31.3626  255 255 255
9.01735 8.82783 31.0959  255 255 255
9.1569 8.78653 30.3929  255 255 255
9.07541 8.49738 30.1614  255 255 255
9.09414 8.49061 30.1642  255 255 255
40.4001 5.14878 24.8644  255 255 255
39.4239 0.361304 15.7442  255 255 255
39.6447 1.1669 27.6167  255 255 255
18.6342 3.44353 41.1875  255 255 255
18.3529 3.46174 41.4726  255 255 255
13.2243 29.4704 11.6069  255 255 255
16.4539 28.9342 9.64785  255 255 255
13.2193 28.0507 10.2193  255 255 255
8.90929 9.25714 32.356  255 255 255
8.92369 8.88334 32.1399  255 255 255
9.09862 8.53936 30.6355  255 255 255
8.5409 8.26318 29.9189  255 255 255
9.10946 5.69234 29.6302  255 255 255
10.8944 2.81865 7.21544  255 255 255
28.5216 1.90358 42.4111  255 255 255
28.5216 1.90358 42.4111  255 255 255
9.33292 6.74516 29.2228  255 255 255
8.83852 6.48361 29.4272  255 255 255
12.3798 3.77963 4.001  255 255 255
14.1686 7.01173 31.3585  255 255 255
41.4425 5.8713 21.3863  255 255 255
39.2598 1.78404 28.7438  255 255 255
11.3609 10.3271 -8.61778  255 255 255
22.1551 21.9888 -52.5934  255 255 255
11.7144 9.79618 -8.67575  255 255 255
44.7538 13.7389 -27.2997  255 255 255
12.0787 9.17878 -9.32213  255 255 255
49.0517 8.42631 -21.0218  255 255 255
12.5991 4.12227 -8.78136  255 255 255
46.0778 3.52841 -34.0887  255 255 255
46.0382 3.5089 -33.9938  255 255 255
49.7553 0.81449 -18.4916  255 255 255
22.0502 0.695891 -0.136698  255 255 255
8.60387 -12.4889 -16.6153  255 255 255
11.994 6.2267 -3.67833  255 255 255
11.9845 5.86714 -4.1453  255 255 255
12.2229 5.82519 -6.72141  255 255 255
12.0179 4.86147 -3.20378  255 255 255
10.5777 1.76867 -5.86724  255 255 255
10.5974 1.67733 -6.06425  255 255 255
11.6379 0.800596 -3.7901  255 255 255
12.1306 5.4971 -7.06387  255 255 255
50.966 1.45535 -50.1361  255 255 255
10.5888 2.61649 -5.88037  255 255 255
-19.8446 -34.7197 -42.6755  255 255 255
11.976 7.08292 -3.46508  255 255 255
16.6747 1.97585 -2.54125  255 255 255
46.4545 24.0986 -24.5836  255 255 255
18.9826 23.4381 -24.5609  255 255 255
18.1332 20.2192 -24.5566  255 255 255
12.3538 6.69363 -8.86043  255 255 255
48.922 7.87939 -19.8212  255 255 255
48.8976 7.77492 -19.0873  255 255 255
48.9216 7.75955 -20.5549  255 255 255
48.9733 7.77149 -22.4346  255 255 255
48.9207 6.83695 -19.5155  255 255 255
12.3162 5.53868 -8.04795  255 255 255
49.2154 5.30888 -21.9709  255 255 255
13.5257 4.96787 -21.8647  255 255 255
13.5246 4.68753 -19.4326  255 255 255
14.6119 4.69761 -24.9677  255 255 255
14.186 4.60115 -24.8516  255 255 255
13.3213 3.66328 -11.9245  255 255 255
13.0233 0.241294 -20.442  255 255 255
36.9483 0.947806 -16.3926  255 255 255
37.4976 2.02978 -5.34796  255 255 255
36.8277 0.923451 -10.992  255 255 255
36.8277 0.923451 -10.992  255 255 255
36.9352 0.814274 -10.703  255 255 255
22.8468 2.32126 -1.83435  255 255 255
36.2538 1.06925 -5.84397  255 255 255
22.6437 2.10349 -1.54968  255 255 255
36.4038 1.08454 -5.4503  255 255 255
36.8517 1.20819 -4.63901  255 255 255
36.2198 0.955901 -5.60933  255 255 255
36.1916 0.891995 -5.80022  255 255 255
36.3587 0.917668 -5.40213  255 255 255
36.2118 0.827855 -5.65603  255 255 255
36.2109 0.856589 -5.44153  255 255 255
24.955 -0.290939 -9.29224  255 255 255
15.9387 24.9564 -22.7263  255 255 255
20.1981 24.4723 -25.1842  255 255 255
18.5821 23.856 -25.1617  255 255 255
16.3735 22.8235 -24.4255  255 255 255
13.4847 10.7674 -8.20327  255 255 255
11.3648 10.685 -8.59634  255 255 255
12.3277 5.61536 -8.19692  255 255 255
12.1877 5.63187 -8.38009  255 255 255
13.3613 4.71134 -17.3573  255 255 255
13.1506 4.34917 -18.8404  255 255 255
13.3074 4.16771 -13.4543  255 255 255
12.5006 4.0744 -9.69481  255 255 255
13.226 3.42303 -12.5774  255 255 255
12.9237 2.42109 -29.7725  255 255 255
12.2971 2.76194 -20.7443  255 255 255
13.2908 3.13972 -13.2477  255 255 255
37.6446 1.46105 -14.1864  255 255 255
24.8355 1.10361 -16.4647  255 255 255
38.7675 1.37444 -11.1433  255 255 255
25.495 -0.0601542 -10.061  255 255 255
38.4518 0.926536 -5.30433  255 255 255
36.4664 0.366575 -4.58039  255 255 255
22.6912 -0.523233 -1.47296  255 255 255
21.0798 -0.52192 -1.07957  255 255 255
22.2437 -0.965262 -1.69351  255 255 255
21.8005 -1.42447 -2.25708  255 255 255
11.817 11.1074 -8.26861  255 255 255
48.4228 7.33588 -13.7688  255 255 255
12.3001 5.77042 -6.8402  255 255 255
12.8567 6.20741 -12.0936  255 255 255
13.3574 4.58184 -13.3409  255 255 255
12.5312 2.68826 -21.7983  255 255 255
13.0191 3.09252 -14.326  255 255 255
36.5397 1.63219 -7.0945  255 255 255
37.779 1.02403 -4.88629  255 255 255
37.5933 0.304957 -4.76261  255 255 255
22.4183 -0.735716 -1.65009  255 255 255
46.7125 24.0817 -24.9356  255 255 255
19.3392 21.8985 -23.9132  255 255 255
12.7681 6.66863 -14.1346  255 255 255
22.4574 -0.886471 -2.27081  255 255 255
37.6301 1.61496 -10.7227  255 255 255
22.8122 1.92065 -7.48805  255 255 255
28.2061 3.10657 -0.0273183  255 255 255
28.2061 3.10657 -0.0273188  255 255 255
23.547 1.23549 -7.96026  255 255 255
37.2448 0.272382 -4.62428  255 255 255
17.1034 21.2065 -5.46473  255 255 255
13.292 3.54245 -11.8448  255 255 255
13.2065 3.29515 -13.2055  255 255 255
38.8883 1.01962 -5.5022  255 255 255
17.1003 26.2712 -22.228  255 255 255
15.8064 24.1947 -22.6591  255 255 255
36.3422 0.442896 -5.11026  255 255 255
12.7355 2.85387 -12.8052  255 255 255
35.8712 1.70272 -5.50193  255 255 255
23.6528 1.78782 -7.69676  255 255 255
36.4574 -0.200755 -11.1427  255 255 255
48.9896 7.47026 -16.3121  255 255 255
48.9896 7.47026 -16.3121  255 255 255
12.1146 31.8342 11.3347  255 255 255
12.1633 30.8966 12.3962  255 255 255
9.03787 9.47855 31.0656  255 255 255
9.03785 9.47855 31.0656  255 255 255
11.01 6.39288 33.567  255 255 255
20.7052 3.04604 33.5153  255 255 255
19.2503 3.07173 36.2524  255 255 255
17.3885 27.9364 11.6062  255 255 255
16.2514 28.6208 9.24421  255 255 255
9.08224 9.34631 30.3301  255 255 255
9.13025 9.18521 29.7228  255 255 255
13.4668 6.61895 32.1572  255 255 255
41.6237 4.18666 24.0732  255 255 255
18.9413 3.45535 40.9785  255 255 255
26.5524 1.57885 35.301  255 255 255
12.3239 32.0935 11.5978  255 255 255
14.8822 29.0141 8.77076  255 255 255
9.14789 9.50472 30.8066  255 255 255
21.0488 3.46115 39.3829  255 255 255
17.5789 30.4599 9.56241  255 255 255
9.40216 9.16749 31.5324  255 255 255
18.0684 3.83954 41.3754  255 255 255
18.0556 3.84002 41.3566  255 255 255
40.858 4.67376 24.6349  255 255 255
18.1281 3.4086 41.4539  255 255 255
17.9308 4.15444 41.218  255 255 255
17.1976 4.08602 41.5566  255 255 255
9.14193 8.767 28.7755  255 255 255
12.8988 7.16063 31.3657  255 255 255
11.6707 6.43081 29.8885  255 255 255
41.8585 2.90893 21.0201  255 255 255
40.8389 1.06498 23.1612  255 255 255
40.9101 6.16763 26.391  255 255 255
15.5599 12.5105 27.6489  255 255 255
20.679 25.2453 -24.9244  255 255 255
12.7588 5.96141 -11.0332  255 255 255
48.8683 6.84511 -19.2091  255 255 255
48.8016 6.55569 -18.347  255 255 255
13.1803 4.3306 -17.5177  255 255 255
30.4357 4.24559 -1.52127  255 255 255
12.9895 1.98857 -20.6962  255 255 255
12.9895 1.98857 -20.6962  255 255 255
13.1633 0.619816 -23.1499  255 255 255
12.9655 0.780021 -20.6392  255 255 255
37.2188 0.829298 -11.2411  255 255 255
37.2188 0.829297 -11.2411  255 255 255
37.3428 0.859059 -10.2549  255 255 255
36.7269 -0.721983 -12.8409  255 255 255
36.4893 1.10021 -5.31148  255 255 255
36.1003 0.308923 -5.20851  255 255 255
36.6557 0.381351 -4.63823  255 255 255
17.5229 26.8464 -22.9987  255 255 255
20.9657 25.2572 -25.1628  255 255 255
19.5145 24.0561 -25.4225  255 255 255
19.418 21.4596 -23.9498  255 255 255
12.961 5.44299 -11.8184  255 255 255
13.5842 4.57031 -22.3196  255 255 255
13.1807 3.69398 -10.8846  255 255 255
13.1583 3.58178 -10.8584  255 255 255
13.1515 3.45964 -11.216  255 255 255
36.1527 0.816065 -12.1031  255 255 255
35.9148 1.24072 -6.73483  255 255 255
36.4887 -0.434658 -12.1508  255 255 255
35.7248 1.2047 -5.87445  255 255 255
24.2399 2.05537 -3.13009  255 255 255
35.7815 0.858977 -6.58692  255 255 255
35.8999 0.792557 -6.10357  255 255 255
22.6553 2.26254 -1.69743  255 255 255
22.6772 2.24664 -1.44912  255 255 255
18.6839 26.0951 -22.2423  255 255 255
20.977 25.0587 -25.2894  255 255 255
16.7806 24.4 -25.6582  255 255 255
19.3889 21.8619 -24.0291  255 255 255
13.4958 3.96408 -21.1553  255 255 255
23.0943 1.41271 -7.54082  255 255 255
35.8551 0.671362 -6.49978  255 255 255
24.9423 -0.312322 -9.35766  255 255 255
36.9976 0.789612 -4.70576  255 255 255
36.422 0.620203 -4.99501  255 255 255
22.7874 1.48549 -1.27214  255 255 255
19.1696 23.5025 -26.5505  255 255 255
13.1561 6.92301 -11.9864  255 255 255
37.6724 1.59305 -10.7949  255 255 255
28.6639 3.55286 0.765386  255 255 255
23.1187 1.01508 -7.73089  255 255 255
22.9173 0.718196 -1.02972  255 255 255
22.9173 0.718196 -1.02972  255 255 255
22.5287 -0.886588 -1.74247  255 255 255
16.3715 23.0172 -24.6539  255 255 255
15.6513 22.0451 -23.5033  255 255 255
22.8369 1.43412 -1.30823  255 255 255
22.8369 1.43412 -1.30823  255 255 255
23.7242 -0.229475 -1.51432  255 255 255
48.828 1.69696 -15.9071  255 255 255
23.2361 1.28375 -7.633  255 255 255
36.9274 0.606017 -4.77919  255 255 255
23.1307 0.730285 -1.20026  255 255 255
18.1474 26.2767 -23.215  255 255 255
22.7631 1.17336 -1.12112  255 255 255
22.72 1.20827 -0.954695  255 255 255
23.6129 -0.0301533 -1.78281  255 255 255
12.8356 5.97386 -11.759  255 255 255
12.8224 5.97592 -11.7643  255 255 255
36.3702 -0.256899 -6.96538  255 255 255
12.9661 5.30085 -11.365  255 255 255
23.0606 0.594614 -0.958604  255 255 255
22.7216 2.17291 -1.71028  255 255 255
17.7732 22.4492 -25.3155  255 255 255
17.9621 22.003 -24.6555  255 255 255
13.1493 4.14816 -12.7947  255 255 255
12.9393 1.74974 -13.8985  255 255 255
15.5881 21.1941 -5.0119  255 255 255
9.8419 17.8196 17.7458  255 255 255
13.0065 11.0284 -8.58333  255 255 255
13.0061 11.0245 -8.58321  255 255 255
12.1559 10.5528 -8.56673  255 255 255
10.7879 9.17791 11.2147  255 255 255
11.1942 10.5753 -8.66746  255 255 255
12.4989 10.1991 -8.72296  255 255 255
10.8731 9.12808 10.1483  255 255 255
11.6182 9.66211 -8.66435  255 255 255
9.96803 8.11485 19.9831  255 255 255
10.7802 8.44984 10.9471  255 255 255
9.90486 8.03925 20.2802  255 255 255
9.9045 8.02414 20.2808  255 255 255
9.95844 8.01356 19.6874  255 255 255
10.8097 8.31312 10.2786  255 255 255
9.90153 7.7842 20.2931  255 255 255
9.91553 7.77335 20.2072  255 255 255
9.91553 7.77335 20.2072  255 255 255
10.8741 7.86947 10.1179  255 255 255
10.7764 7.71288 11.6241  255 255 255
10.7227 7.72275 11.6121  255 255 255
12.1324 6.09961 -6.58946  255 255 255
12.2935 5.63959 -6.08031  255 255 255
11.3354 5.59559 6.95782  255 255 255
11.1036 5.48866 7.93759  255 255 255
11.1256 5.49089 7.9479  255 255 255
9.75796 5.47008 18.0772  255 255 255
13.1312 5.38747 18.8291  255 255 255
8.6034 5.44569 18.5017  255 255 255
8.51595 5.12114 20.7964  255 255 255
9.05451 4.24288 15.3307  255 255 255
8.98963 4.09736 16.0667  255 255 255
9.05467 3.81768 14.2718  255 255 255
9.06501 3.60391 14.2746  255 255 255
9.08238 3.48026 14.2346  255 255 255
10.6544 2.44259 10.2537  255 255 255
11.9275 1.04687 -1.9431  255 255 255
9.91749 0.26707 2.33863  255 255 255
9.89036 0.265797 3.59047  255 255 255
8.95467 1.21497 15.9905  255 255 255
15.6596 1.18496 15.3863  255 255 255
20.812 1.24431 5.9655  255 255 255
19.2318 0.436509 6.71257  255 255 255
18.9742 0.261184 7.10817  255 255 255
20.9516 0.667394 5.93558  255 255 255
-22.6641 -36.9573 -15.9757  255 255 255
15.3989 21.8683 -5.34154  255 255 255
13.4789 11.2102 -8.56437  255 255 255
13.083 11.0968 -8.71418  255 255 255
13.0868 11.0968 -8.71023  255 255 255
10.8242 10.552 -8.66999  255 255 255
11.5094 10.2334 -8.70103  255 255 255
9.91317 8.32512 20.5959  255 255 255
9.90583 8.31254 20.3526  255 255 255
9.90583 8.31254 20.3526  255 255 255
11.2192 9.86788 -8.26247  255 255 255
10.8039 8.50801 10.6913  255 255 255
9.89694 8.07785 20.4523  255 255 255
10.8431 8.37192 10.6109  255 255 255
9.93225 7.99828 20.1113  255 255 255
9.96658 7.94533 19.7577  255 255 255
10.7806 8.25775 11.2242  255 255 255
9.92613 7.92352 20.1886  255 255 255
9.93732 7.91998 20.1853  255 255 255
9.90016 7.70452 20.6017  255 255 255
10.7421 7.99483 11.4644  255 255 255
10.1292 7.6635 18.197  255 255 255
14.9636 6.08344 17.3121  255 255 255
12.1887 6.40759 -3.70773  255 255 255
15.0554 5.8008 17.3725  255 255 255
12.1378 5.92298 -4.36685  255 255 255
11.7961 5.71861 -0.716962  255 255 255
9.0565 5.44064 14.8266  255 255 255
8.50495 5.39687 20.8915  255 255 255
9.00811 5.34601 14.9316  255 255 255
14.877 5.23302 17.2709  255 255 255
11.5221 4.78253 7.58588  255 255 255
15.0606 4.6763 17.4341  255 255 255
10.087 3.92892 2.76707  255 255 255
9.06004 4.23929 14.8086  255 255 255
9.04658 3.89077 14.3802  255 255 255
10.6499 3.611 10.7276  255 255 255
9.12159 3.52351 14.3896  255 255 255
9.16211 3.09693 14.2404  255 255 255
10.6306 1.98466 -5.9941  255 255 255
9.01989 2.69391 15.9215  255 255 255
8.63253 2.55532 19.3491  255 255 255
10.9029 1.87498 10.5133  255 255 255
10.7485 1.94665 12.5564  255 255 255
10.7485 1.94665 12.5564  255 255 255
16.3587 0.0859729 6.9141  255 255 255
15.6303 1.04455 15.5168  255 255 255
17.3248 0.140004 8.0295  255 255 255
17.3673 0.152729 8.05755  255 255 255
16.9151 0.370207 12.6986  255 255 255
19.2259 0.234043 6.79277  255 255 255
19.0608 0.139784 6.95791  255 255 255
16.5457 0.580976 17.3024  255 255 255
15.4631 21.5583 -5.23714  255 255 255
9.82144 18.0998 17.8135  255 255 255
9.82456 18.1014 17.8129  255 255 255
9.90224 17.6835 17.8125  255 255 255
10.0937 8.92043 18.3936  255 255 255
13.0936 10.0467 -8.68984  255 255 255
9.89897 7.79625 20.5104  255 255 255
9.93361 7.69748 20.1971  255 255 255
12.7946 8.62694 -9.3291  255 255 255
10.0832 7.64842 18.5999  255 255 255
10.7332 7.84021 11.4666  255 255 255
12.2527 8.5252 -8.76998  255 255 255
10.8499 7.84944 10.4322  255 255 255
10.6463 7.73017 13.1049  255 255 255
10.7851 8.66882 -8.50861  255 255 255
10.758 7.67208 11.3922  255 255 255
10.8019 7.62001 10.5652  255 255 255
10.7284 7.00475 13.7634  255 255 255
10.7321 6.99912 13.7615  255 255 255
14.9628 5.75363 17.3425  255 255 255
